# .PCD v0.7 - Point Cloud Data file format
VERSION 0.7
FIELDS x y z intensity
SIZE 4 4 4 4
TYPE F F F F
COUNT 1 1 1 1
WIDTH 1381
HEIGHT 1
VIEWPOINT 0 0 0 1 0 0 0
POINTS 1381
DATA ascii
17.921 2.6140001 0.38999999 0.33000001
17.907 2.641 0.38999999 0.41999999
17.945999 2.704 0.391 0.38999999
17.927999 2.7590001 0.391 0.27000001
17.044001 2.677 0.382 0.43000001
17.004 2.7249999 0.38100001 0.38999999
17.021 2.783 0.382 0.44999999
17.552999 2.927 0.38699999 0.28999999
16.982 2.859 0.38100001 0.25999999
17.044001 2.924 0.382 0.49000001
17.216 3.01 0.384 0.22
17.5 3.1170001 0.38699999 0.33000001
17.502001 3.174 0.38699999 0.47
17.573999 3.244 0.38800001 0.34
17.639 3.313 0.389 0.38
16.909 3.2030001 0.38100001 0.36000001
17.042 3.2839999 0.38299999 0.25999999
16.896 3.3099999 0.38100001 0.28
16.834 3.3529999 0.38100001 0.40000001
16.861 3.414 0.38100001 0.41999999
16.757999 3.447 0.38 0.41
16.847 3.5209999 0.38100001 0.27000001
17.007999 3.6110001 0.38299999 0.38999999
17.069 3.652 0.384 0.37
17.021999 3.698 0.38299999 0.37
16.556 3.6500001 0.37900001 0.34999999
16.679001 3.733 0.38 0.28
16.358999 3.714 0.377 0.41
16.452 3.79 0.37799999 0.37
16.475 3.8499999 0.37799999 0.28999999
16.323 3.8410001 0.377 0.46000001
16.42 3.9189999 0.37799999 0.34
16.349001 3.9560001 0.377 0.30000001
16.323 4.0040002 0.377 0.55000001
16.646 4.1389999 0.38100001 0.33000001
17.284 4.3569999 0.38699999 0.34999999
17.426001 4.4510002 0.389 0.28
17.399 4.473 0.389 0.31999999
17.296 4.5050001 0.38800001 0.44
14.705 3.875 0.361 0.28999999
14.647 3.9089999 0.36000001 0.28
14.225 3.8440001 0.35600001 0.43000001
14.238 3.895 0.35600001 0.49000001
20.943001 5.8130002 0.42699999 0.23
17.302 4.8270001 0.389 0.20999999
17.124001 4.835 0.38699999 0.34999999
17.035 4.868 0.38600001 0.43000001
17.058001 4.9330001 0.38699999 0.20999999
17.007999 4.9759998 0.38600001 0.50999999
16.997999 5.0310001 0.38600001 0.19
19.743999 5.9159999 0.41600001 0.44999999
14.262 4.29 0.35800001 0.28999999
14.239 4.3319998 0.35800001 0.49000001
19.424999 5.987 0.41299999 0.18000001
19.353001 6.0310001 0.412 0.36000001
19.246 6.0640001 0.41100001 0.37
19.124001 6.0910001 0.41 0.43000001
19.027 6.1259999 0.40900001 0.36000001
18.936001 6.1290002 0.40799999 0.38999999
18.834999 6.1620002 0.40799999 0.38
18.728001 6.1919999 0.40700001 0.38999999
18.627001 6.224 0.40599999 0.38999999
18.518 6.2519999 0.405 0.38999999
18.415001 6.2820001 0.40400001 0.38999999
18.322001 6.3140001 0.403 0.40000001
18.232 6.3150001 0.40200001 0.41
18.135 6.3449998 0.40099999 0.40000001
18.040001 6.375 0.40099999 0.41
17.941999 6.4039998 0.40000001 0.40000001
17.847 6.4330001 0.39899999 0.41
17.753 6.4629998 0.398 0.41
17.669001 6.4949999 0.39700001 0.34999999
17.582001 6.494 0.39700001 0.43000001
17.485001 6.5209999 0.396 0.40000001
17.395 6.5489998 0.39500001 0.36000001
17.301001 6.5760002 0.39399999 0.43000001
17.238001 6.6139998 0.39399999 0.30000001
17.114 6.6279998 0.39300001 0.55000001
17.032 6.658 0.39199999 0.37
12.424 4.8720002 0.34200001 0.27000001
16.870001 6.6859999 0.391 0.38999999
16.805 6.7210002 0.38999999 0.31
16.705999 6.7420001 0.389 0.56
16.615999 6.7670002 0.389 0.33000001
12.559 5.1539998 0.34400001 0.36000001
16.451 6.8200002 0.38699999 0.34999999
16.372 6.8179998 0.38600001 0.40000001
16.283001 6.8400002 0.38600001 0.5
16.221001 6.8740001 0.38499999 0.23999999
16.124001 6.8930001 0.384 0.47
16.065001 6.928 0.384 0.33000001
15.966 6.9439998 0.38299999 0.54000002
9.9060001 4.335 0.317 0.28
9.9049997 4.3530002 0.317 0.36000001
9.8909998 4.3839998 0.317 0.60000002
15.679 7.0250001 0.38100001 0.2
9.8109999 4.4219999 0.31600001 0.43000001
9.3950005 4.2690001 0.31200001 0.47999999
9.3450003 4.2820001 0.31099999 0.36000001
9.3830004 4.335 0.31200001 0.5
9.2539997 4.2930002 0.31 0.25999999
9.2139997 4.309 0.31 0.61000001
9.0100002 4.2480001 0.308 0.28999999
9.177 4.3629999 0.31 0.51999998
8.7110004 4.1729999 0.30500001 0.33000001
8.6610003 4.1820002 0.30399999 0.60000002
8.9779997 4.3709998 0.308 0.31999999
8.9510002 4.3759999 0.308 0.51999998
8.6289997 4.2509999 0.30399999 0.30000001
8.5749998 4.2579999 0.30399999 0.34999999
8.552 4.2800002 0.30399999 0.47999999
8.5509996 4.3130002 0.30399999 0.38999999
8.5629997 4.3530002 0.30399999 0.56999999
8.5509996 4.381 0.30399999 0.28999999
14.312 7.381 0.37 0.47999999
9.7390003 5.052 0.31799999 0.31999999
8.5690002 4.4759998 0.30500001 0.19
9.2049999 4.8470001 0.31200001 0.41
9.2309999 4.8979998 0.31299999 0.38999999
9.1409998 4.8870001 0.31200001 0.62
14.419 7.783 0.373 0.22
14.463 7.8369999 0.373 0.31
14.485 7.908 0.37400001 0.58999997
14.343 7.8889999 0.373 0.2
8.2620001 4.5650001 0.303 0.14
8.1829996 4.5549998 0.30199999 0.37
8.1409998 4.5650001 0.30199999 0.56999999
8.1070004 4.5799999 0.301 0.41
8.2460003 4.6760001 0.303 0.19
8.1330004 4.645 0.30199999 0.60000002
8.1009998 4.6599998 0.30199999 0.34
8.0959997 4.6919999 0.30199999 0.34999999
8.3319998 4.8639998 0.30500001 0.58999997
8.3950005 4.9369998 0.30599999 0.2
14.687 8.7220001 0.38 0.50999999
10.255 6.1030002 0.32800001 0.15000001
8.4879999 5.0819998 0.30700001 0.54000002
8.4689999 5.1069999 0.30700001 0.34999999
14.793 9.007 0.382 0.34
14.787 9.0670004 0.38299999 0.62
14.778 9.1260004 0.38299999 0.23999999
9.6709995 6.0040002 0.322 0.44999999
14.843 9.2950001 0.384 0.30000001
14.86 9.3389997 0.38499999 0.41
9.3290005 5.8920002 0.31900001 0.27000001
8.9020004 5.6609998 0.31400001 0.31999999
8.8559999 5.6700001 0.31400001 0.55000001
8.8830004 5.7270002 0.31400001 0.34
8.7329998 5.6690001 0.31200001 0.41
8.6630001 5.6620002 0.31200001 0.28999999
8.7229996 5.7210002 0.31299999 0.50999999
8.7860003 5.802 0.31400001 0.41
8.8079996 5.8569999 0.31400001 0.46000001
8.8280001 5.9099998 0.315 0.34
8.8789997 5.9850001 0.315 0.40000001
8.5959997 5.8319998 0.31200001 0.47
8.7910004 5.9860001 0.315 0.37
8.8299999 6.053 0.315 0.5
8.8109999 6.0809999 0.315 0.31999999
8.8260002 6.1329999 0.31600001 0.40000001
8.8690004 6.204 0.317 0.47999999
8.941 6.2969999 0.31799999 0.30000001
9.0819998 6.4400001 0.31999999 0.46000001
9.0620003 6.447 0.31999999 0.36000001
9.0450001 6.4780002 0.31999999 0.5
9.0179996 6.5009999 0.31999999 0.41
9.0089998 6.5380001 0.31999999 0.43000001
9.0900002 6.6409998 0.32100001 0.41
9.8459997 7.243 0.331 0.37
9.0229998 6.6789999 0.32100001 0.5
15.476 11.516 0.40200001 0.43000001
6.2690001 4.677 0.28600001 0.18000001
9.4250002 7.0929999 0.32600001 0.5
9.4370003 7.1490002 0.32699999 0.44999999
9.4189997 7.2290001 0.32699999 0.49000001
15.587 12.062 0.40599999 0.28999999
11.925 9.2810001 0.36000001 0.43000001
8.0109997 6.244 0.31 0.27000001
8.0950003 6.3509998 0.31099999 0.16
5.9400001 4.6820002 0.28400001 0.41
5.9429998 4.7140002 0.28400001 0.41
6.0419998 4.8249998 0.285 0.31999999
6.04 4.855 0.28600001 0.38
6.0450001 4.8899999 0.28600001 0.36000001
6.0139999 4.881 0.28600001 0.44999999
10.212 -8.6420002 0.34200001 0.36000001
10.272 -8.6379995 0.34299999 0.40000001
10.195 -8.5179996 0.34200001 0.37
10.298 -8.5760002 0.34299999 0.34999999
10.166 -8.4130001 0.34099999 0.34999999
10.161 -8.3559999 0.34 0.31
10.262 -8.3839998 0.34099999 0.41
10.387 -8.4329996 0.34200001 0.46000001
9.4989996 -7.665 0.331 0.27000001
10.792 -8.6479998 0.347 0.44999999
9.6940002 -7.7470002 0.333 0.31999999
10.55 -8.3739996 0.34299999 0.33000001
9.3610001 -7.3860002 0.32800001 0.20999999
9.3070002 -7.296 0.32699999 0.34
9.2819996 -7.23 0.32600001 0.38999999
9.2480001 -7.1570001 0.32499999 0.27000001
10.447 -8.0279999 0.34 0.37
9.2779999 -7.1110001 0.32499999 0.41
9.3830004 -7.1440001 0.32600001 0.27000001
9.7110004 -7.3439999 0.33000001 0.38
9.7609997 -7.3340001 0.331 0.43000001
10.083 -7.5250001 0.33399999 0.25
10.203 -7.5650001 0.336 0.47999999
10.343 -7.618 0.33700001 0.36000001
10.482 -7.6950002 0.33899999 0.34999999
10.556 -7.698 0.33899999 0.52999997
10.814 -7.8340001 0.34200001 0.30000001
10.639 -7.6560001 0.34 0.34
9.7180004 -6.9499998 0.32800001 0.23
9.6370001 -6.8470001 0.32699999 0.27000001
9.6269999 -6.7950001 0.32600001 0.47
9.8260002 -6.9120002 0.329 0.38
9.9689999 -6.9650002 0.33000001 0.31999999
10.496 -7.283 0.336 0.23999999
10.484 -7.2259998 0.336 0.38
10.694 -7.3200002 0.338 0.38999999
10.768 -7.3210001 0.33899999 0.31999999
10.003 -6.7579999 0.329 0.36000001
10.166 -6.8439999 0.331 0.28999999
10.506 -7.0240002 0.33500001 0.38
10.429 -6.9260001 0.33399999 0.40000001
10.319 -6.8060002 0.33199999 0.36000001
10.322 -6.7620001 0.33199999 0.38999999
10.423 -6.7820001 0.333 0.41
10.495 -6.7810001 0.33399999 0.38999999
10.502 -6.763 0.33399999 0.43000001
10.654 -6.8119998 0.33500001 0.28
11.333 -7.1939998 0.34299999 0.43000001
11.438 -7.211 0.34400001 0.34999999
11.479 -7.1869998 0.34400001 0.33000001
11.419 -7.099 0.34299999 0.41
11.385 -7.0279999 0.34200001 0.44999999
11.607 -7.1399999 0.345 0.28999999
11.73 -7.165 0.34599999 0.34999999
11.772 -7.1389999 0.34599999 0.46000001
11.669 -7.027 0.345 0.27000001
11.663 -6.974 0.345 0.57999998
11.425 -6.7839999 0.34200001 0.28999999
11.769 -6.9369998 0.345 0.36000001
11.785 -6.9219999 0.345 0.37
11.753 -6.8540001 0.345 0.54000002
11.925 -6.9029999 0.347 0.43000001
14.787 -8.4910002 0.38 0.28999999
14.603 -8.3249998 0.377 0.17
12.72 -7.2020001 0.35499999 0.41
13.575 -7.6279998 0.36500001 0.17
13.559 -7.5910001 0.36399999 0.30000001
13.624 -7.572 0.36500001 0.52999997
13.771 -7.5970001 0.366 0.20999999
14.72 -8.0579996 0.377 0.28
14.321 -7.7820001 0.37200001 0.31999999
14.465 -7.802 0.373 0.30000001
14.188 -7.5949998 0.37 0.49000001
13.861 -7.3930001 0.366 0.25
13.174 -6.9219999 0.35800001 0.57999998
15.086 -7.862 0.37900001 0.23
15.135 -7.8270001 0.37900001 0.20999999
15.523 -7.9650002 0.384 0.38999999
19.837 -10.092 0.43200001 0.25999999
19.796 -10.032 0.43200001 0.18000001
19.809 -9.9610004 0.43099999 0.28999999
19.871 -9.9139996 0.43200001 0.27000001
20.15 -9.974 0.43399999 0.31999999
20.305 -9.9709997 0.43599999 0.20999999
20.316 -9.8979998 0.43599999 0.2
20.32 -9.8210001 0.435 0.36000001
20.243999 -9.7449999 0.43399999 0.34999999
19.044001 -9.0959997 0.421 0.20999999
20.334999 -9.632 0.435 0.15000001
20.586 -9.6709995 0.43700001 0.11
20.615 -9.6059999 0.43700001 0.15000001
20.547001 -9.4180002 0.43599999 0.27000001
20.566 -9.3870001 0.43599999 0.46000001
21.527 -9.743 0.44600001 0.13
20.556999 -9.2279997 0.435 0.31999999
20.625999 -9.1809998 0.435 0.23
20.558001 -9.073 0.43399999 0.51999998
21.163 -9.1809998 0.44 0.34
22.305 -9.6339998 0.45300001 0.18000001
22.374001 -9.5799999 0.45300001 0.20999999
22.448 -9.5279999 0.454 0.20999999
39.839001 -16.740999 0.64399999 0.090000004
39.886002 -16.614 0.64399999 0.090000004
39.945999 -16.490999 0.64399999 0.090000004
39.952999 -16.347 0.64300001 0.14
39.956001 -16.275999 0.64300001 0.1
39.886002 -16.101 0.64200002 0.079999998
40.019001 -16.009001 0.64300001 0.079999998
40.143002 -15.912 0.64399999 0
40.209999 -15.793 0.64399999 0.059999999
40.268002 -15.67 0.64399999 0.14
40.256001 -15.52 0.64300001 0
39.926998 -15.321 0.639 0
39.455002 -14.998 0.634 0
40.271999 -15.164 0.64200002 0.090000004
40.381001 -15.06 0.64300001 0.16
40.437 -14.937 0.64300001 0.1
40.518002 -14.822 0.64300001 0
40.581001 -14.701 0.64300001 0
40.969002 -14.768 0.64700001 0
41.466 -14.8 0.65200001 0
42.553001 -15.037 0.66299999 0
52.750999 -18.447001 0.77200001 0
53.098 -18.381001 0.77499998 0
58.320999 -19.982 0.82999998 0
61.529999 -20.864 0.86400002 0
62.014 -20.702999 0.86799997 0
62.166 -20.537001 0.86900002 0
62.561001 -20.448999 0.87199998 0
62.827 -20.318001 0.87400001 0
62.93 -20.132999 0.875 0
77.059998 -14.585 1 0
75.098 -13.726 0.97899997 0
74.959999 -13.579 0.977 0
75.336998 -11.579 0.977 0
75.420998 -11.35 0.97799999 0
75.468002 -11.114 0.97799999 0
75.880997 -10.688 0.98100001 0
76.115997 -10.599 0.98400003 0
53.091 -7.2309999 0.74900001 0
75.945 -10.09 0.98100001 0
75.904999 -9.842 0.98100001 0
54.484001 -6.8979998 0.76200002 0
54.428001 -6.717 0.76099998 0
54.388 -6.539 0.76099998 0
54.324001 -6.4450002 0.75999999 0
54.519001 -6.2940001 0.76200002 0
54.577999 -6.1269999 0.76200002 0
54.359001 -5.9299998 0.75999999 0
54.126999 -5.7329998 0.75700003 0
53.868 -5.5339999 0.75400001 0
53.772999 -5.3540001 0.75300002 0
54.252998 -5.3150001 0.75800002 0
54.078999 -5.1269999 0.75599998 0
54.188 -4.9660001 0.75700003 0
44.067001 -3.9030001 0.65399998 0
44.081001 -3.7650001 0.65399998 0.12
44.129002 -3.6300001 0.65499997 0.16
44.174 -3.494 0.65499997 0.18000001
44.191002 -3.425 0.65499997 0.34
44.208 -3.2869999 0.65499997 0.2
44.268002 -3.151 0.65600002 0.31999999
44.277 -3.0120001 0.65600002 0.19
44.331001 -2.8759999 0.65600002 0.23999999
44.337002 -2.737 0.65600002 0.19
44.400002 -2.5999999 0.65700001 0
54.124001 -3.079 0.755 0
54.157001 -2.9100001 0.755 0
54.216 -2.7420001 0.75599998 0
54.243999 -2.573 0.75599998 0
54.321999 -2.4059999 0.75700003 0
54.342999 -2.2360001 0.75700003 0
44.203999 -1.615 0.65399998 0.07
43.584999 -1.455 0.648 0.090000004
43.09 -1.304 0.64300001 0.14
42.563999 -1.154 0.63700002 0.090000004
42.043999 -1.008 0.63200003 0.14
41.573002 -0.86699998 0.62699997 0
41.039001 -0.727 0.62199998 0
34.307999 -0.55800003 0.55400002 0
34.289001 -0.44999999 0.55400002 0
34.241001 -0.34200001 0.55299997 0
39.221001 -0.264 0.60399997 0.090000004
38.784 -0.14 0.59899998 0
38.408001 -0.017999999 0.59500003 0
28.771999 0.30199999 0.29800001 0
27.797001 0.46700001 0.294 0
27.656 0.55199999 0.294 0
21.829 0.68099999 0.27599999 0.33000001
21.551001 0.741 0.27500001 0.47999999
21.51 0.80699998 0.27500001 0.23
21.561001 0.87699997 0.27500001 0.28999999
21.483 0.94099998 0.27500001 0.51999998
21.962999 1.031 0.27599999 0.12
21.162001 1.028 0.27399999 0.27000001
21.211 1.097 0.27399999 0.41999999
21.113001 1.158 0.273 0.34
21.162001 1.228 0.27399999 0.41999999
20.681 1.265 0.27200001 0.34
20.490999 1.319 0.27200001 0.20999999
20.461 1.381 0.271 0.34999999
20.240999 1.399 0.271 0.38999999
20.165001 1.457 0.271 0.38
20.278 1.529 0.271 0.31999999
20.160999 1.584 0.271 0.41
20.288 1.658 0.271 0.30000001
20.254 1.72 0.271 0.34
20.330999 1.79 0.271 0.19
20.312 1.821 0.271 0.40000001
20.285999 1.883 0.271 0.46000001
20.266001 1.9450001 0.271 0.36000001
20.763 2.0580001 0.273 0.36000001
20.931999 2.141 0.273 0.34999999
21.247 2.24 0.27399999 0.34999999
20.878 2.2679999 0.273 0.28999999
20.702 2.2820001 0.27200001 0.36000001
20.726 2.3510001 0.273 0.20999999
20.809999 2.4260001 0.273 0.44
20.82 2.494 0.273 0.30000001
20.851999 2.5639999 0.273 0.38
20.862 2.632 0.273 0.47999999
20.802 2.691 0.273 0.18000001
17.805 2.335 0.26300001 0.40000001
17.792999 2.391 0.26300001 0.28999999
17.712 2.437 0.26300001 0.5
17.82 2.5079999 0.264 0.27000001
17.905001 2.5780001 0.264 0.44999999
18.073 2.6589999 0.264 0.34999999
17.906 2.6930001 0.264 0.36000001
17.176001 2.612 0.26199999 0.43000001
17.002001 2.6400001 0.26100001 0.23
16.969 2.6900001 0.26100001 0.52999997
17.087 2.763 0.26100001 0.22
16.900999 2.7880001 0.26100001 0.34999999
16.841 2.832 0.26100001 0.49000001
17.573 3.0109999 0.26300001 0.38999999
17.538 3.062 0.26300001 0.28999999
17.478001 3.0799999 0.26300001 0.44
17.514999 3.1429999 0.26300001 0.43000001
17.663 3.227 0.26300001 0.44999999
17.547001 3.263 0.26300001 0.28999999
17.875999 3.381 0.264 0.46000001
16.982 3.2690001 0.26100001 0.17
16.969 3.322 0.26100001 0.43000001
16.771999 3.3110001 0.26100001 0.33000001
16.732 3.358 0.26100001 0.46000001
16.677999 3.401 0.25999999 0.30000001
16.827999 3.487 0.26100001 0.47
16.879 3.553 0.26100001 0.31999999
16.909 3.6140001 0.26100001 0.52999997
16.423 3.5650001 0.25999999 0.40000001
16.608999 3.6329999 0.25999999 0.2
16.313999 3.622 0.259 0.49000001
16.509001 3.72 0.25999999 0.27000001
16.464001 3.7639999 0.25999999 0.47999999
16.674999 3.8670001 0.26100001 0.47999999
16.444 3.868 0.25999999 0.2
16.226 3.8710001 0.259 0.27000001
16.103001 3.869 0.259 0.44
16.150999 3.934 0.259 0.25999999
17.155001 4.2340002 0.26300001 0.41
17.273001 4.3210001 0.26300001 0.33000001
17.184 4.3559999 0.26300001 0.41999999
17.188999 4.415 0.26300001 0.41999999
17.263 4.4910002 0.26300001 0.23
17.160999 4.494 0.26300001 0.55000001
14.623 3.882 0.25400001 0.36000001
14.556 3.914 0.25400001 0.31999999
14.177 3.8599999 0.25299999 0.43000001
14.178 3.908 0.25299999 0.37
20.839001 5.802 0.27500001 0.23
20.750999 5.848 0.27500001 0.54000002
20.622 5.8470001 0.27399999 0.22
17.304001 4.9689999 0.264 0.34999999
20.391001 5.9200001 0.27399999 0.36000001
20.212999 5.9380002 0.273 0.28999999
19.719 5.8600001 0.27200001 0.19
14.213 4.2800002 0.25400001 0.46000001
14.239 4.3369999 0.25400001 0.19
17.003 5.2030001 0.26300001 0.54000002
19.316999 5.973 0.271 0.22
19.243 6.0170002 0.27000001 0.38
19.134001 6.0489998 0.27000001 0.40000001
19.023001 6.0799999 0.27000001 0.47999999
18.927999 6.1149998 0.27000001 0.38
18.819 6.1459999 0.26899999 0.38999999
18.722 6.1469998 0.26899999 0.38999999
18.627001 6.1799998 0.26899999 0.38
18.514 6.2080002 0.26800001 0.38999999
18.417 6.2399998 0.26800001 0.38999999
18.316 6.27 0.26800001 0.41
18.215 6.2989998 0.26800001 0.41
18.118999 6.3299999 0.26699999 0.41
18.035999 6.3330002 0.26699999 0.41
17.934999 6.3610001 0.26699999 0.40000001
17.847 6.3930001 0.26699999 0.41999999
17.759001 6.4250002 0.266 0.40000001
17.646999 6.447 0.266 0.44
17.551001 6.4749999 0.266 0.41
17.469 6.507 0.266 0.43000001
17.384001 6.506 0.26499999 0.41999999
17.290001 6.533 0.26499999 0.43000001
17.215 6.5669999 0.26499999 0.43000001
17.118 6.592 0.26499999 0.34
17.006001 6.6100001 0.264 0.57999998
16.938 6.645 0.264 0.25
16.858 6.6750002 0.264 0.34
16.761999 6.6680002 0.264 0.64999998
16.679001 6.6960001 0.26300001 0.28
16.615999 6.7309999 0.26300001 0.33000001
16.497999 6.744 0.26300001 0.63
12.499 5.1620002 0.249 0.30000001
16.351999 6.8049998 0.26300001 0.27000001
16.246 6.8200002 0.26199999 0.55000001
16.198 6.8299999 0.26199999 0.34
11.845 5.046 0.24699999 0.58999997
9.8039999 4.2179999 0.23999999 0.28999999
9.7139997 4.2160001 0.23999999 0.30000001
9.6820002 4.2379999 0.23999999 0.31
9.7060003 4.2849998 0.23999999 0.36000001
9.6870003 4.3130002 0.23999999 0.37
9.7440004 4.3559999 0.23999999 0.27000001
9.7060003 4.3759999 0.23999999 0.44999999
9.6960001 4.408 0.23999999 0.34
9.4219999 4.3200002 0.23899999 0.25
9.3280001 4.3130002 0.23899999 0.41999999
9.3310003 4.3499999 0.23899999 0.38
9.2849998 4.3639998 0.23899999 0.22
9.2600002 4.3699999 0.23899999 0.54000002
9.0129995 4.289 0.23800001 0.25
8.9160004 4.2779999 0.23800001 0.31999999
8.9139996 4.3109999 0.23800001 0.49000001
8.9899998 4.382 0.23800001 0.20999999
8.9460001 4.3959999 0.23800001 0.31
8.8760004 4.3959999 0.23800001 0.38999999
8.8570004 4.4039998 0.23800001 0.23999999
14.54 7.2690001 0.25799999 0.23
14.465 7.2880001 0.25799999 0.57999998
9.7910004 4.9809999 0.241 0.19
9.802 5.026 0.242 0.30000001
9.9519997 5.1409998 0.242 0.40000001
14.312 7.4380002 0.25799999 0.14
14.392 7.5089998 0.25799999 0.64999998
14.33 7.533 0.25799999 0.34
8.9610004 4.7579999 0.23899999 0.36000001
8.5310001 4.5650001 0.237 0.31999999
8.4390001 4.5500002 0.237 0.27000001
8.5019999 4.619 0.237 0.20999999
8.4099998 4.6030002 0.237 0.52999997
14.333 7.8540001 0.25799999 0.16
14.488 8.0570002 0.259 0.38999999
14.502 8.125 0.259 0.47999999
14.531 8.2010002 0.259 0.38999999
14.51 8.2489996 0.259 0.68000001
8.3330002 4.7849998 0.237 0.40000001
8.316 4.8099999 0.237 0.22
8.2849998 4.809 0.237 0.44999999
14.63 8.5930004 0.25999999 0.44999999
14.655 8.6689997 0.25999999 0.36000001
14.664 8.7370005 0.26100001 0.47
14.69 8.8149996 0.26100001 0.37
14.701 8.8850002 0.26100001 0.47
14.747 8.9440002 0.26100001 0.34
14.751 9.0100002 0.26100001 0.47
14.776 9.0889997 0.26100001 0.38
14.877 9.2150002 0.26199999 0.64999998
9.1370001 5.711 0.241 0.17
14.818 9.3079996 0.26199999 0.38
14.846 9.3579998 0.26199999 0.52999997
8.8979998 5.6599998 0.23999999 0.27000001
8.8879995 5.6929998 0.23999999 0.44999999
8.816 5.6869998 0.23999999 0.25
9.0860004 5.9000001 0.241 0.38
8.7340002 5.711 0.23999999 0.2
8.8009996 5.7950001 0.23999999 0.47
8.8269997 5.8309999 0.23999999 0.36000001
8.9069996 5.9239998 0.241 0.31999999
9.2030001 6.1620002 0.242 0.33000001
8.8699999 5.98 0.241 0.20999999
9.1689997 6.223 0.242 0.46000001
9.1780005 6.2709999 0.242 0.23
15.099 10.366 0.26499999 0.38
8.7930002 6.0700002 0.23999999 0.5
15.134 10.495 0.26499999 0.22
15.155 10.58 0.26499999 0.41
9.1029997 6.4099998 0.242 0.23
15.203 10.756 0.266 0.13
8.974 6.4050002 0.242 0.16
8.9610004 6.4380002 0.242 0.38999999
8.9580002 6.4790001 0.242 0.28999999
8.9580002 6.5 0.242 0.47999999
8.9610004 6.5450001 0.242 0.34999999
8.9569998 6.585 0.242 0.28999999
8.9020004 6.5879998 0.242 0.56
15.386 11.438 0.26699999 0.16
15.423 11.541 0.26800001 0.31
9.2370005 6.9699998 0.243 0.20999999
9.2139997 6.9759998 0.243 0.30000001
9.092 6.9289999 0.243 0.37
6.2309999 4.79 0.23199999 0.15000001
6.1259999 4.7399998 0.23100001 0.25999999
9.1389999 7.1009998 0.243 0.15000001
9.1610003 7.164 0.243 0.34999999
6.0630002 4.7839999 0.23100001 0.19
6.0419998 4.7820001 0.23100001 0.33000001
6.0580001 4.8260002 0.23100001 0.2
5.9380002 4.7620001 0.23100001 0.25
5.9590001 4.809 0.23100001 0.20999999
5.928 4.8150001 0.23100001 0.22
10.541 -8.9370003 0.25 0.54000002
10.399 -8.7600002 0.25 0.38999999
10.074 -8.4320002 0.248 0.2
10.195 -8.4779997 0.249 0.41
10.197 -8.4259996 0.248 0.27000001
10.282 -8.4700003 0.249 0.46000001
10.318 -8.4449997 0.249 0.34
10.461 -8.507 0.249 0.15000001
10.619 -8.5810003 0.25 0.56
10.545 -8.4659996 0.249 0.25
10.145 -8.092 0.248 0.43000001
10.075 -7.9840002 0.24699999 0.22
9.1590004 -7.2309999 0.244 0.37
9.243 -7.2509999 0.244 0.33000001
9.1569996 -7.1370001 0.243 0.23
8.9910002 -6.9619999 0.243 0.31999999
9.0159998 -6.9359999 0.243 0.38999999
9.0600004 -6.9239998 0.243 0.28
10.114 -7.6830001 0.24699999 0.31999999
10.42 -7.8909998 0.248 0.30000001
10.185 -7.6620002 0.24699999 0.38
10.343 -7.7309999 0.248 0.20999999
10.321 -7.664 0.24699999 0.58999997
10.427 -7.6919999 0.248 0.30000001
10.756 -7.8829999 0.249 0.36000001
10.69 -7.783 0.248 0.30000001
10.46 -7.5900002 0.248 0.27000001
10.555 -7.6079998 0.248 0.52999997
10.246 -7.336 0.24699999 0.23999999
9.6990004 -6.8969998 0.244 0.31
9.7370005 -6.8779998 0.244 0.34999999
9.6210003 -6.75 0.244 0.27000001
9.5970001 -6.6880002 0.244 0.46000001
10.832 -7.5279999 0.248 0.30000001
9.901 -6.8319998 0.245 0.20999999
9.7679996 -6.6939998 0.244 0.22
9.7749996 -6.6539998 0.244 0.50999999
10.026 -6.7800002 0.245 0.28999999
9.9779997 -6.7010002 0.245 0.23999999
10.369 -6.9180002 0.24600001 0.33000001
10.443 -6.9439998 0.24600001 0.31999999
10.395 -6.8649998 0.24600001 0.34
10.39 -6.8150001 0.24600001 0.40000001
10.481 -6.8280001 0.24600001 0.33000001
10.441 -6.7550001 0.24600001 0.33000001
10.514 -6.7550001 0.24600001 0.25999999
10.657 -6.8000002 0.24699999 0.44999999
10.62 -6.7529998 0.24600001 0.25999999
11.109 -7.0170002 0.248 0.33000001
11.046 -6.928 0.248 0.43000001
11.231 -6.9949999 0.249 0.20999999
11.283 -6.9790001 0.249 0.56999999
11.509 -7.0700002 0.249 0.28999999
11.332 -6.9109998 0.249 0.44
11.43 -6.947 0.249 0.27000001
11.197 -6.756 0.248 0.23
11.736 -7.0320001 0.25 0.47999999
11.79 -7.0149999 0.25 0.43000001
11.747 -6.9390001 0.25 0.16
11.719 -6.8730001 0.25 0.58999997
11.906 -6.9330001 0.25 0.37
11.967 -6.9429998 0.25 0.23
11.935 -6.875 0.25 0.37
12.864 -7.3579998 0.25400001 0.20999999
12.85 -7.2969999 0.25299999 0.51999998
12.953 -7.302 0.25400001 0.28999999
12.99 -7.2690001 0.25400001 0.49000001
14.296 -7.9439998 0.25799999 0.17
13.477 -7.4590001 0.255 0.37
12.983 -7.132 0.25299999 0.33000001
14.85 -8.1000004 0.25999999 0.37
14.806 -8.0159998 0.25999999 0.31999999
14.258 -7.6599998 0.25799999 0.27000001
14.211 -7.5780001 0.25799999 0.56999999
14.689 -7.7740002 0.259 0.28
14.496 -7.6430001 0.25799999 0.23999999
14.465 -7.5679998 0.25799999 0.47999999
14.503 -7.5300002 0.25799999 0.20999999
19.542999 -10.079 0.27599999 0.50999999
14.968 -7.6539998 0.25999999 0.23999999
15.475 -7.8520002 0.26199999 0.15000001
19.5 -9.8249998 0.27599999 0.25999999
19.469 -9.7709999 0.27500001 0.40000001
19.777 -9.849 0.27599999 0.43000001
20.225 -9.993 0.278 0.20999999
20.152 -9.8789997 0.278 0.38999999
20.118 -9.7840004 0.27700001 0.36000001
20.177999 -9.7340002 0.27700001 0.44999999
19 -9.0909996 0.273 0.30000001
19.014999 -9.0609999 0.273 0.22
21.652 -10.239 0.28200001 0.28
21.77 -10.211 0.28299999 0.28
21.712999 -10.101 0.28200001 0.47
21.864 -10.088 0.28299999 0.23999999
22.056999 -10.094 0.28299999 0.33000001
21.936001 -9.9549999 0.28299999 0.30000001
21.965 -9.9259996 0.28299999 0.23
22.039 -9.8769999 0.28299999 0.27000001
22.056 -9.8009996 0.28299999 0.49000001
22.184999 -9.7749996 0.28299999 0.25
22.125999 -9.6660004 0.28299999 0.28999999
22.285 -9.6520004 0.28299999 0.27000001
21.106001 -9.0620003 0.27900001 0.27000001
39.655998 -16.976999 0.34299999 0.23999999
39.798 -16.889999 0.34299999 0.30000001
39.837002 -16.759001 0.34299999 0.28
39.84 -16.613001 0.34299999 0.2
39.875 -16.481001 0.34299999 0.38
39.911999 -16.35 0.34299999 0.23
39.925999 -16.209 0.34299999 0.23
39.937 -16.139999 0.34299999 0.31
40.044998 -16.038 0.34299999 0.19
40.075001 -15.904 0.34299999 0.16
33.485001 -13.162 0.31999999 0.25
33.598999 -13.086 0.31999999 0.16
33.827999 -13.053 0.32100001 0.18000001
39.922001 -15.265 0.34200001 0.23999999
40.062 -15.247 0.34200001 0.2
40.241001 -15.17 0.34200001 0.18000001
40.308998 -15.051 0.34200001 0.38999999
40.452999 -14.961 0.34299999 0.18000001
40.578999 -14.863 0.34299999 0.27000001
40.641998 -14.741 0.34299999 0.17
41.101002 -14.762 0.34400001 0.18000001
41.646999 -14.885 0.34599999 0
52.651001 -18.638 0.38299999 0.07
52.791 -18.500999 0.38299999 0.16
55.196999 -19.150999 0.391 0
58.075001 -19.947001 0.40000001 0
61.931 -20.839001 0.41299999 0
61.914001 -20.725 0.41299999 0
62.223999 -20.612 0.41299999 0
71.737999 -20.556999 0.442 0
52.278 -12.515 0.37599999 0.07
52.300999 -12.347 0.37599999 0.090000004
52.352001 -12.185 0.37599999 0
52.383999 -12.019 0.37599999 0
73.457001 -16.017 0.44400001 0
73.458 -15.776 0.44400001 0
73.482002 -15.539 0.44400001 0.12
74.023003 -15.169 0.44499999 0
73.860001 -14.894 0.44400001 0
71.015999 -13.508 0.435 0
66.848 -11.521 0.421 0
43.835999 -5.5739999 0.34599999 0
43.84 -5.4349999 0.34599999 0
43.891998 -5.3010001 0.34599999 0
40.150002 -4.6550002 0.33399999 0.30000001
40.146999 -4.527 0.33399999 0.20999999
40.176998 -4.4029999 0.33399999 0.23999999
40.222 -4.2800002 0.33399999 0.15000001
36.796001 -3.796 0.32300001 0.34
36.754002 -3.675 0.32300001 0.25
36.777 -3.5610001 0.32300001 0.19
36.800999 -3.5050001 0.32300001 0.41
36.842999 -3.392 0.32300001 0
33.515999 -2.8710001 0.31299999 0.31999999
33.425999 -2.757 0.31299999 0.23
33.439999 -2.6530001 0.31299999 0.25999999
33.487999 -2.5510001 0.31299999 0.25
33.375999 -2.49 0.31200001 0
44.282001 -3.1719999 0.347 0
44.299 -3.033 0.347 0.11
30.082001 -1.956 0.30199999 0.20999999
29.778 -1.842 0.301 0.27000001
29.796 -1.75 0.301 0.31999999
29.839001 -1.658 0.301 0.31999999
29.841999 -1.6109999 0.301 0.28
29.716999 -1.511 0.301 0
54.214001 -2.6070001 0.37799999 0
54.220001 -2.437 0.37799999 0
45.355999 -1.891 0.34999999 0
44.681999 -1.722 0.34799999 0.11
44.063999 -1.559 0.34599999 0.18000001
43.473999 -1.47 0.34400001 0.41
42.952999 -1.317 0.34200001 0.23999999
42.429001 -1.1670001 0.34099999 0.23
41.758999 -1.017 0.338 0
28.629 0.28299999 0.162 0
28.528 0.37200001 0.162 0
28.542999 0.46200001 0.162 0
27.575001 0.70499998 0.164 0
21.660999 0.71899998 0.17299999 0.25
21.950001 0.79799998 0.17200001 0.18000001
21.612 0.85299999 0.17299999 0.51999998
22.162001 0.94499999 0.17200001 0.30000001
22.245001 1.0190001 0.17200001 0.40000001
22.538 1.103 0.17200001 0.37
21.527 1.087 0.17299999 0.22
21.016001 1.127 0.17399999 0.36000001
20.813 1.181 0.17399999 0.34999999
20.767 1.244 0.17399999 0.30000001
20.707001 1.3049999 0.17399999 0.41
20.379999 1.349 0.175 0.36000001
20.336 1.41 0.175 0.40000001
20.385 1.446 0.175 0.38999999
20.212999 1.497 0.175 0.38
20.344 1.571 0.175 0.41999999
20.341 1.635 0.175 0.34999999
20.354 1.701 0.175 0.38999999
20.379999 1.767 0.175 0.34
20.406 1.834 0.175 0.43000001
20.849001 1.908 0.17399999 0.25999999
21.898001 2.0739999 0.17200001 0.25
20.948 2.05 0.17399999 0.38999999
20.783001 2.099 0.17399999 0.44999999
20.905001 2.178 0.17399999 0.41999999
20.844999 2.2379999 0.17399999 0.31
20.822001 2.302 0.17399999 0.44999999
20.907 2.3440001 0.17399999 0.31
20.745001 2.392 0.17399999 0.38999999
20.882 2.4749999 0.17399999 0.27000001
20.819 2.533 0.17399999 0.44
20.903999 2.6110001 0.17399999 0.31
21.907 2.8069999 0.17200001 0.49000001
21.968 2.885 0.17200001 0.23
17.823 2.3929999 0.17900001 0.20999999
17.940001 2.437 0.178 0.57999998
18.271999 2.5999999 0.178 0.41
18.027 2.6229999 0.178 0.25
17.801001 2.6459999 0.17900001 0.56999999
17.299999 2.6270001 0.17900001 0.19
17.128 2.6559999 0.18000001 0.49000001
17.26 2.704 0.17900001 0.34
17.725 2.835 0.17900001 0.46000001
17.024 2.776 0.18000001 0.46000001
17.169001 2.8559999 0.17900001 0.25
17.826 3.0239999 0.178 0.37
17.761 3.0699999 0.17900001 0.51999998
17.615999 3.102 0.17900001 0.31
17.746 3.154 0.17900001 0.43000001
17.726999 3.2079999 0.17900001 0.46000001
17.827 3.2839999 0.178 0.44999999
17.636999 3.306 0.17900001 0.30000001
17.02 3.2449999 0.18000001 0.34999999
16.837 3.2639999 0.18000001 0.58999997
16.862 3.3239999 0.18000001 0.34
16.886 3.3570001 0.18000001 0.38999999
16.726999 3.3789999 0.18000001 0.38
16.714001 3.431 0.18000001 0.58999997
16.962999 3.539 0.18000001 0.31
17.049999 3.6129999 0.17900001 0.44999999
16.450001 3.539 0.18000001 0.27000001
16.457001 3.5940001 0.18000001 0.50999999
16.482 3.6270001 0.18000001 0.34
16.451 3.674 0.18000001 0.56
16.582001 3.7590001 0.18000001 0.31999999
16.589001 3.8150001 0.18000001 0.44
16.542 3.859 0.18000001 0.58999997
16.552999 3.9170001 0.18000001 0.30000001
16.145 3.8729999 0.18099999 0.56999999
16.9 4.0830002 0.18000001 0.25
17.316 4.2420001 0.17900001 0.28999999
17.348 4.3080001 0.17900001 0.56999999
17.302999 4.3540001 0.17900001 0.23
17.275999 4.4050002 0.17900001 0.44999999
17.295 4.4679999 0.17900001 0.31
17.271 4.52 0.17900001 0.44999999
17.271 4.5489998 0.17900001 0.50999999
17.157 4.5760002 0.17900001 0.19
14.685 3.9630001 0.183 0.58999997
14.351 3.9200001 0.183 0.27000001
14.261 3.944 0.184 0.63999999
14.262 3.9920001 0.184 0.25
20.827 5.9130001 0.17299999 0.38999999
20.691 5.9099998 0.17299999 0.41
20.563 5.9429998 0.17299999 0.38
20.476999 5.9879999 0.17299999 0.43000001
20.236 5.9860001 0.17399999 0.27000001
14.36 4.289 0.183 0.16
14.304 4.3210001 0.183 0.63999999
14.31 4.3720002 0.183 0.28999999
19.559 6.02 0.175 0.25999999
17.127001 5.3270001 0.17900001 0.56
19.326 6.0809999 0.175 0.31
19.209999 6.1100001 0.175 0.47
19.115 6.1459999 0.175 0.36000001
19 6.1750002 0.176 0.46000001
18.912001 6.2119999 0.176 0.38
18.809999 6.211 0.176 0.47
18.712 6.244 0.176 0.38
18.601999 6.2719998 0.176 0.49000001
18.51 6.3060002 0.176 0.38999999
18.392 6.3299999 0.176 0.5
18.306999 6.3649998 0.176 0.38999999
18.208 6.395 0.177 0.41
18.122999 6.3969998 0.177 0.41
18.01 6.421 0.177 0.52999997
17.938999 6.4590001 0.177 0.38999999
17.834 6.4840002 0.177 0.54000002
17.743 6.5139999 0.177 0.40000001
17.649 6.5419998 0.177 0.43000001
17.556999 6.5710001 0.177 0.43000001
17.474001 6.5710001 0.178 0.44
17.391001 6.6030002 0.178 0.43000001
17.301001 6.631 0.178 0.43000001
17.212 6.658 0.178 0.41999999
17.112 6.6810002 0.178 0.44999999
17.018999 6.7059999 0.178 0.63999999
12.423 4.9330001 0.186 0.31999999
16.863001 6.737 0.178 0.44
16.788 6.7680001 0.178 0.46000001
16.674 6.783 0.17900001 0.68000001
12.466 5.1100001 0.186 0.28999999
12.544 5.1880002 0.185 0.47
16.436001 6.8670001 0.17900001 0.34
16.351 6.8920002 0.17900001 0.46000001
16.267 6.8860002 0.17900001 0.68000001
16.198999 6.9180002 0.17900001 0.34
9.8459997 4.23 0.19 0.47
9.8920002 4.2870002 0.19 0.38999999
9.8629999 4.3109999 0.19 0.41
9.8549995 4.3449998 0.19 0.55000001
9.7889996 4.3520002 0.19 0.28
9.9020004 4.4219999 0.19 0.55000001
9.6590004 4.349 0.19 0.38
9.6120005 4.3639998 0.19 0.41999999
9.5950003 4.3920002 0.19 0.44999999
9.592 4.428 0.19 0.41999999
9.4460001 4.3959999 0.19 0.63
9.3830004 4.402 0.19 0.28999999
9.3509998 4.4050002 0.19 0.46000001
9.2469997 4.3909998 0.191 0.58999997
9.3570004 4.48 0.19 0.34
9.1540003 4.4180002 0.191 0.56999999
9.4239998 4.586 0.19 0.25999999
9.5299997 4.6750002 0.19 0.58999997
9.467 4.6799998 0.19 0.37
14.729 7.3270001 0.18099999 0.28999999
14.654 7.3470001 0.18099999 0.49000001
9.8059998 4.9460001 0.189 0.44999999
9.8009996 4.9819999 0.189 0.43000001
9.8920002 5.0669999 0.189 0.56999999
9.9879999 5.1570001 0.189 0.25
14.388 7.4980001 0.18099999 0.44
14.387 7.5560002 0.18099999 0.41
9.2519999 4.8670001 0.19 0.43000001
9.2720003 4.915 0.19 0.41999999
9.2040005 4.9159999 0.19 0.68000001
8.6359997 4.6459999 0.191 0.31999999
8.5830002 4.652 0.191 0.46000001
8.7939997 4.803 0.191 0.62
14.414 7.9499998 0.18099999 0.2
14.57 8.1260004 0.18099999 0.51999998
14.586 8.1949997 0.18099999 0.55000001
14.598 8.2629995 0.18000001 0.55000001
14.624 8.3380003 0.18000001 0.54000002
14.633 8.4040003 0.18000001 0.56
14.661 8.4510002 0.18000001 0.54000002
14.686 8.5279999 0.18000001 0.43000001
14.706 8.6009998 0.18000001 0.52999997
14.722 8.6730003 0.18000001 0.51999998
14.734 8.7419996 0.18000001 0.50999999
14.75 8.8140001 0.18000001 0.51999998
14.766 8.8870001 0.18000001 0.5
14.795 8.9370003 0.18000001 0.51999998
14.813 9.0109997 0.18000001 0.49000001
14.825 9.0830002 0.18000001 0.44
14.819 9.1429996 0.17900001 0.56
14.826 9.2119999 0.17900001 0.43000001
14.843 9.2869997 0.17900001 0.44999999
9.2200003 5.8179998 0.19 0.41
9.1669998 5.8239999 0.19 0.58999997
9.0319996 5.7789998 0.19 0.34999999
8.9969997 5.796 0.19 0.66000003
9.033 5.8590002 0.19 0.28999999
9.0430002 5.9060001 0.19 0.47
9.0139999 5.928 0.19 0.38
9.0839996 6.0149999 0.19 0.44999999
9.0310001 6 0.19 0.38
9.0120001 6.0289998 0.19 0.41
8.9849997 6.0510001 0.19 0.64999998
15.138 10.287 0.178 0.18000001
9.2250004 6.2989998 0.189 0.55000001
15.162 10.443 0.178 0.23999999
15.16 10.512 0.178 0.41
15.209 10.582 0.178 0.34999999
9.0769997 6.3449998 0.189 0.19
9.0620003 6.3769999 0.189 0.49000001
9.0769997 6.4310002 0.189 0.34999999
9.0489998 6.4530001 0.189 0.47
9.0059996 6.4650002 0.189 0.46000001
8.9790001 6.4889998 0.189 0.44999999
9.0030003 6.5279999 0.189 0.56999999
9.0629997 6.6149998 0.189 0.37
9.0450001 6.6459999 0.189 0.34999999
15.266 11.313 0.177 0.54000002
15.446 11.522 0.177 0.33000001
15.49 11.631 0.176 0.34
15.523 11.694 0.176 0.14
9.3149996 7.0500002 0.18799999 0.66000003
9.2580004 7.053 0.18799999 0.31
9.2819996 7.1170001 0.18799999 0.2
9.2139997 7.1110001 0.18799999 0.44999999
9.1789999 7.1300001 0.18799999 0.69
8.0740004 6.309 0.191 0.23
6.223 4.8870001 0.19400001 0.51999998
6.2480001 4.9229999 0.19400001 0.34999999
6.1560001 4.881 0.19400001 0.28
6.0739999 4.8470001 0.19400001 0.37
6.0479999 4.8569999 0.19400001 0.37
6.0710001 4.9070001 0.19400001 0.38999999
5.9819999 4.8660002 0.19499999 0.34
10.243 -8.6750002 0.186 0.37
10.233 -8.6120005 0.186 0.36000001
10.252 -8.573 0.186 0.25
10.19 -8.467 0.186 0.49000001
10.36 -8.5530005 0.186 0.25999999
10.296 -8.4729996 0.186 0.62
10.588 -8.6569996 0.185 0.31999999
10.369 -8.4250002 0.186 0.40000001
10.471 -8.4519997 0.186 0.33000001
8.9779997 -7.2059999 0.189 0.47
10.732 -8.552 0.185 0.23999999
10.489 -8.3050003 0.186 0.46000001
9.3920002 -7.4159999 0.18799999 0.41
9.4259996 -7.395 0.18799999 0.25999999
9.1429996 -7.1269999 0.189 0.43000001
9.382 -7.2659998 0.18799999 0.44
9.1999998 -7.0799999 0.18799999 0.34
10.233 -7.8200002 0.18700001 0.34
10.193 -7.7389998 0.18700001 0.40000001
10.244 -7.7519999 0.18700001 0.47
10.382 -7.8049998 0.186 0.36000001
10.437 -7.7950001 0.186 0.44999999
10.444 -7.7490001 0.186 0.62
10.75 -7.9229999 0.186 0.36000001
10.683 -7.822 0.186 0.34
10.592 -7.7059999 0.186 0.43000001
10.556 -7.6539998 0.186 0.38
10.555 -7.6030002 0.186 0.44
10.449 -7.4770002 0.18700001 0.30000001
9.7620001 -6.9419999 0.18799999 0.41999999
9.7089996 -6.8579998 0.18799999 0.28999999
9.6780005 -6.7909999 0.18799999 0.56
9.9829998 -6.9580002 0.18799999 0.34
10.404 -7.2249999 0.18700001 0.38
10.408 -7.1799998 0.18700001 0.44999999
10.066 -6.8979998 0.18799999 0.31999999
9.8369999 -6.697 0.18799999 0.33000001
9.8330002 -6.6490002 0.18799999 0.56
9.9289999 -6.6680002 0.18799999 0.28999999
10.505 -7.006 0.18700001 0.46000001
10.553 -7.013 0.18700001 0.41999999
10.6 -6.9970002 0.18700001 0.37
10.662 -6.9899998 0.18700001 0.5
10.69 -6.96 0.18700001 0.41
10.763 -6.9590001 0.18700001 0.28999999
10.724 -6.8870001 0.18700001 0.51999998
10.99 -7.0079999 0.186 0.41
11.248 -7.1469998 0.186 0.28
11.328 -7.1479998 0.186 0.52999997
11.223 -7.033 0.186 0.34
11.169 -6.9499998 0.186 0.54000002
11.321 -6.9959998 0.186 0.36000001
11.707 -7.1820002 0.185 0.55000001
11.596 -7.0650001 0.185 0.41
11.607 -7.046 0.185 0.38999999
11.706 -7.0560002 0.185 0.61000001
11.746 -7.0300002 0.185 0.34
11.935 -7.0910001 0.185 0.40000001
12.774 -7.5339999 0.183 0.58999997
12.05 -7.0580001 0.185 0.27000001
13.273 -7.7150002 0.183 0.25
12.504 -7.244 0.184 0.33000001
12.957 -7.4510002 0.183 0.30000001
13.008 -7.4260001 0.183 0.66000003
13.054 -7.3979998 0.183 0.34
13.177 -7.4120002 0.183 0.25999999
13.067 -7.2969999 0.183 0.56999999
13.309 -7.3769999 0.183 0.25
14.857 -8.2010002 0.18000001 0.27000001
14.908 -8.1680002 0.18000001 0.23999999
14.935 -8.1219997 0.18000001 0.5
14.95 -8.0690002 0.18000001 0.16
14.477 -7.757 0.18099999 0.58999997
14.445 -7.6810002 0.18099999 0.31
14.489 -7.6459999 0.18099999 0.43000001
14.515 -7.631 0.18099999 0.43000001
19.513 -10.17 0.17200001 0.31
14.532 -7.5240002 0.18099999 0.30000001
19.607 -10.063 0.17200001 0.34
19.493999 -9.9280005 0.17299999 0.28999999
19.627001 -9.9180002 0.17200001 0.25999999
19.481001 -9.7679996 0.17299999 0.37
19.528 -9.7530003 0.17299999 0.44
19.697001 -9.7600002 0.17200001 0.34999999
20.27 -9.9639997 0.171 0.36000001
20.319 -9.9090004 0.171 0.46000001
20.344999 -9.842 0.171 0.25999999
20.392 -9.7860003 0.171 0.5
19.132 -9.1099997 0.17399999 0.34999999
19.127001 -9.0699997 0.17399999 0.23
21.688999 -10.198 0.169 0.25
21.780001 -10.158 0.169 0.38999999
22.054001 -10.201 0.169 0.40000001
22.257 -10.21 0.169 0.22
22.264999 -10.129 0.169 0.25
22.058001 -9.9510002 0.169 0.36000001
22.125999 -9.9399996 0.169 0.44999999
22.393 -9.9759998 0.168 0.34
22.437 -9.9110003 0.168 0.28999999
22.289 -9.7620001 0.169 0.31999999
22.389 -9.7220001 0.169 0.19
22.416 -9.6499996 0.169 0.44
22.559999 -9.6280003 0.168 0
33.784 -14.342 0.15000001 0.079999998
33.997002 -14.306 0.149 0.19
40.150002 -16.742001 0.139 0
33.735001 -13.947 0.15000001 0.13
33.396999 -13.685 0.15099999 0.11
40.216999 -16.327 0.139 0.16
34.192001 -13.76 0.149 0
34.480999 -13.813 0.149 0
40.069 -15.901 0.14 0.07
33.949001 -13.353 0.15000001 0.11
33.834 -13.186 0.15000001 0
40.129002 -15.489 0.14 0.16
39.863998 -15.243 0.14 0.23999999
39.992001 -15.148 0.14 0.27000001
40.119999 -15.125 0.14 0.18000001
39.617001 -14.793 0.141 0.14
39.479 -14.601 0.141 0.25999999
40.688999 -14.903 0.139 0.2
40.842999 -14.813 0.139 0
40.893002 -14.686 0.139 0
41.535 -14.769 0.138 0
42.456001 -15.021 0.13699999 0
52.907001 -18.525 0.12 0
55.294998 -19.165001 0.116 0
58.175999 -19.958 0.111 0
60.458 -20.528 0.108 0
60.604 -20.365 0.107 0
60.611 -20.156 0.108 0
65.685997 -21.497999 0.098999999 0
65.902 -21.34 0.098999999 0
52.479 -12.375 0.123 0.11
52.66 -12.243 0.123 0.13
53.035 -12.155 0.122 0
52.441002 -11.846 0.123 0
73.431 -15.489 0.090000004 0.55000001
73.563004 -15.275 0.090000004 0
71.101997 -13.488 0.093999997 0
43.993 -5.3119998 0.138 0
44.036999 -5.177 0.138 0
40.613998 -4.6469998 0.14300001 0
40.250999 -4.5419998 0.14399999 0
40.314999 -4.421 0.14399999 0
40.313 -4.2919998 0.14399999 0
40.354 -4.1680002 0.14399999 0.079999998
36.883999 -3.6949999 0.149 0.090000004
36.896999 -3.5799999 0.149 0.16
36.896 -3.4619999 0.149 0.16
36.938 -3.408 0.149 0
44.192001 -3.9319999 0.138 0
33.943001 -2.9189999 0.154 0.1
33.583 -2.7820001 0.154 0.18000001
33.554001 -2.6730001 0.154 0.31
33.598 -2.5710001 0.154 0.19
33.639999 -2.467 0.154 0
33.639999 -2.414 0.154 0
44.384998 -3.0369999 0.138 0
44.372002 -2.8959999 0.138 0.1
30.146 -1.881 0.16 0.27000001
29.916 -1.772 0.16 0.22
29.941 -1.6799999 0.16 0.34
29.965 -1.586 0.16 0.2
29.987 -1.54 0.16 0.38
29.997999 -1.446 0.16 0
54.32 -2.427 0.122 0
54.389999 -2.2590001 0.122 0
54.414001 -2.089 0.122 0.059999999
44.550999 -1.575 0.13699999 0.14
43.995998 -1.4170001 0.138 0.30000001
43.473999 -1.332 0.139 0
27.364 -0.33199999 0.164 0
27.341 -0.289 0.164 0
27.259001 0.063000001 -0.0089999996 0
27.250999 0.149 -0.0089999996 0
27.285999 0.235 -0.0089999996 0
27.302 0.32100001 -0.0089999996 0
27.330999 0.36399999 -0.0099999998 0
27.35 0.44999999 -0.0099999998 0
27.346001 0.53600001 -0.0099999998 0
27.364 0.62199998 -0.0099999998 0
27.408001 0.70899999 -0.0099999998 0
22.254999 0.75599998 0.029999999 0.38999999
22.614 0.83899999 0.028000001 0.27000001
22.721001 0.91399997 0.027000001 0.28
22.301001 0.96799999 0.029999999 0.38999999
22.115999 1.03 0.030999999 0.14
22.618 1.124 0.027000001 0.25999999
21.877001 1.1569999 0.033 0.25999999
21.702999 1.182 0.035 0.28999999
21.566 1.242 0.035999998 0.33000001
21.694 1.318 0.035 0.38999999
20.43 1.307 0.045000002 0.38
20.503 1.376 0.044 0.23
20.445 1.437 0.044 0.38
20.415001 1.499 0.045000002 0.41999999
20.237 1.5190001 0.046 0.34
20.385 1.594 0.045000002 0.38
20.392 1.659 0.045000002 0.47999999
20.302999 1.716 0.045000002 0.37
20.447001 1.793 0.044 0.34
20.961 1.904 0.039999999 0.25999999
20.388 1.9170001 0.045000002 0.41
20.351999 1.978 0.045000002 0.28
20.649 2.039 0.041999999 0.5
20.694 2.109 0.041999999 0.38
20.681999 2.174 0.041999999 0.33000001
20.649 2.2360001 0.041999999 0.38
20.666 2.303 0.041999999 0.31
20.718 2.375 0.041999999 0.38
20.757999 2.4460001 0.041000001 0.47
20.909 2.497 0.039999999 0.36000001
21.705 2.6600001 0.034000002 0.37
21.985001 2.7639999 0.030999999 0.19
21.829 2.8139999 0.032000002 0.46000001
21.882999 2.891 0.032000002 0.30000001
17.761 2.408 0.064999998 0.25999999
18.237 2.53 0.061000001 0.46000001
18.136 2.5450001 0.061999999 0.37
17.825001 2.559 0.064000003 0.36000001
17.728001 2.602 0.064999998 0.25999999
17.725 2.6589999 0.064999998 0.58999997
18.004 2.7579999 0.061999999 0.17
17.525 2.7420001 0.066 0.56
16.992001 2.714 0.07 0.18000001
16.781 2.7079999 0.071999997 0.54000002
17.558001 2.888 0.066 0.25
17.558001 2.9449999 0.066 0.52999997
17.496 2.9909999 0.066 0.27000001
17.488001 3.0469999 0.066 0.56
18.268999 3.24 0.059999999 0.41999999
17.475 3.1570001 0.066 0.36000001
17.653 3.2179999 0.064999998 0.28999999
17.931999 3.3269999 0.061999999 0.20999999
17.158001 3.24 0.068000004 0.47999999
16.936001 3.2539999 0.07 0.34
16.818001 3.286 0.071000002 0.51999998
16.917 3.3599999 0.07 0.18000001
17.02 3.4360001 0.068999998 0.61000001
17.305 3.5220001 0.067000002 0.23
16.535999 3.4200001 0.072999999 0.47
16.971001 3.5650001 0.068999998 0.40000001
17.117001 3.652 0.068000004 0.23999999
17.627001 3.8180001 0.064000003 0.5
17.252001 3.7939999 0.067000002 0.18000001
16.263 3.632 0.075000003 0.61000001
16.697001 3.7550001 0.071000002 0.16
17.070999 3.895 0.068000004 0.56
17.129 3.9649999 0.067000002 0.27000001
16.544001 3.885 0.071999997 0.56999999
16.139999 3.8440001 0.075000003 0.31999999
16.443001 3.971 0.072999999 0.31999999
16.860001 4.1269999 0.068999998 0.41999999
16.625999 4.098 0.071000002 0.37
16.631001 4.1539998 0.071000002 0.38
16.612 4.2049999 0.071000002 0.44999999
16.641001 4.2680001 0.071000002 0.27000001
16.542 4.2979999 0.071000002 0.44999999
16.620001 4.3740001 0.07 0.34999999
16.698999 4.4510002 0.07 0.55000001
16.669001 4.4710002 0.07 0.18000001
14.604 3.97 0.086999997 0.44999999
14.225 3.915 0.090000004 0.37
14.22 3.9619999 0.090000004 0.25
16.486 4.645 0.071000002 0.62
20.708 5.8979998 0.035999998 0.20999999
20.568001 5.928 0.037 0.23
20.461 5.9320002 0.037999999 0.61000001
20.333 5.9640002 0.039000001 0.27000001
14.286 4.2470002 0.088 0.18000001
14.27 4.2919998 0.088 0.61000001
14.27 4.3410001 0.088 0.31999999
19.482 5.9829998 0.045000002 0.23
19.384001 6.02 0.046 0.37
19.283001 6.0219998 0.046999998 0.34
19.177 6.0539999 0.046999998 0.28999999
19.073999 6.0879998 0.048 0.34999999
18.98 6.1240001 0.048999999 0.31
18.868 6.1529999 0.050000001 0.31
18.764999 6.1849999 0.050000001 0.31999999
18.653999 6.2140002 0.050999999 0.28999999
18.563999 6.217 0.052000001 0.33000001
18.462999 6.2480001 0.052000001 0.31999999
18.379 6.2839999 0.052999999 0.38999999
18.253 6.3049998 0.054000001 0.28
18.158001 6.336 0.054000001 0.28999999
18.066 6.368 0.055 0.34
17.971001 6.3979998 0.056000002 0.41999999
17.875999 6.3959999 0.056000002 0.31
17.799 6.4320002 0.057 0.25
17.687 6.454 0.057999998 0.41999999
17.591 6.4819999 0.057999998 0.38
17.511 6.5149999 0.059 0.34
17.414 6.5409999 0.059 0.36000001
17.330999 6.573 0.059999999 0.38999999
17.254 6.5739999 0.059999999 0.40000001
17.150999 6.5970001 0.061000001 0.34
17.059 6.6230001 0.061999999 0.36000001
16.995001 6.6599998 0.061999999 0.28
16.9 6.684 0.063000001 0.54000002
12.298 4.9159999 0.102 0.23999999
16.731001 6.7399998 0.064000003 0.31999999
16.639 6.7329998 0.064000003 0.50999999
16.544001 6.7550001 0.064999998 0.33000001
16.465 6.7839999 0.066 0.31999999
12.493 5.1999998 0.098999999 0.38
16.298 6.835 0.067000002 0.47999999
12.418 5.2600002 0.1 0.16
16.132 6.8850002 0.068000004 0.51999998
16.080999 6.8930001 0.068000004 0.37
9.9069996 4.2950001 0.121 0.17
9.8839998 4.322 0.121 0.56999999
9.8669996 4.3509998 0.121 0.34999999
10 4.447 0.12 0.25
9.9770002 4.474 0.12 0.28999999
9.9300003 4.4910002 0.12 0.38
9.5509996 4.3379998 0.123 0.38
9.5699997 4.3829999 0.123 0.41999999
9.4919996 4.3839998 0.124 0.28999999
9.4589996 4.4050002 0.124 0.49000001
9.4250002 4.4250002 0.124 0.28999999
9.1389999 4.3270001 0.126 0.25999999
9.1350002 4.3600001 0.126 0.41
9.1700001 4.4120002 0.126 0.5
9.184 4.4369998 0.126 0.22
14.874 7.2249999 0.075999998 0.30000001
9.158 4.4949999 0.126 0.28999999
9.1420002 4.5229998 0.126 0.41999999
9.1750002 4.5749998 0.125 0.17
9.7989998 4.9229999 0.12 0.40000001
9.8070002 4.9650002 0.119 0.43000001
9.8900003 5.027 0.119 0.27000001
14.394 7.3590002 0.079000004 0.33000001
14.344 7.3909998 0.079000004 0.40000001
14.322 7.4369998 0.079000004 0.41999999
14.327 7.4959998 0.078000002 0.58999997
9.2469997 4.8860002 0.124 0.38999999
9.2810001 4.9229999 0.123 0.20999999
9.2270002 4.9310002 0.124 0.55000001
14.374 7.723 0.077 0.23999999
14.394 7.7919998 0.077 0.47999999
14.406 7.8569999 0.077 0.15000001
14.364 7.8930001 0.077 0.2
14.311 7.9229999 0.077 0.5
14.362 7.98 0.075999998 0.34
14.485 8.1079998 0.075000003 0.46000001
14.489 8.1700001 0.075000003 0.31
14.517 8.2460003 0.074000001 0.27000001
14.519 8.3070002 0.074000001 0.37
14.559 8.3909998 0.072999999 0.31999999
14.565 8.4560003 0.072999999 0.36000001
14.573 8.4910002 0.072999999 0.30000001
14.617 8.5780001 0.071999997 0.37
14.633 8.6490002 0.071999997 0.36000001
14.628 8.7080002 0.071999997 0.33000001
14.662 8.7910004 0.071000002 0.30000001
14.667 8.8570004 0.071000002 0.34
14.679 8.9259996 0.071000002 0.37
14.698 9.0019999 0.07 0.28999999
14.756 9.0690002 0.068999998 0.46000001
14.77 9.1409998 0.068999998 0.23999999
14.782 9.2130003 0.068999998 0.25999999
9.1470003 5.7529998 0.121 0.19
9.1990004 5.8249998 0.12 0.54000002
14.828 9.4359999 0.067000002 0.15000001
8.9759998 5.7639999 0.122 0.37
8.974 5.783 0.122 0.34
8.9860001 5.8309999 0.122 0.27000001
8.9589996 5.8530002 0.122 0.46000001
9.0100002 5.9260001 0.121 0.38999999
8.9890003 5.9530001 0.121 0.19
8.9569998 5.973 0.121 0.55000001
15.004 10.052 0.064000003 0.2
15.043 10.112 0.063000001 0.25999999
8.9700003 6.0830002 0.121 0.22
15.08 10.275 0.061999999 0.34
15.089 10.351 0.061999999 0.34
15.125 10.446 0.061000001 0.34
15.158 10.539 0.059999999 0.33000001
9.0489998 6.3249998 0.119 0.41
8.993 6.3280001 0.119 0.25999999
9.0319996 6.3979998 0.119 0.44999999
9.1549997 6.5279999 0.117 0.33000001
